ply
format ascii 1.0
comment VCGLIB generated
element vertex 500
property float x
property float y
property float z
element face 0
property list uchar int vertex_indices
end_header
-1.90598 1.88988 -1.57194 
1.88527 1.6442 1.33289 
1.86601 -0.443714 1.11617 
-2.13385 0.513694 -0.347707 
-1.60747 0.916453 -0.015393 
1.82183 -1.78242 1.98735 
1.81414 1.4106 -1.44077 
-1.74222 1.89246 1.66241 
2.0129 -0.14715 -0.113891 
-1.50354 1.72791 0.594708 
-0.507028 0.294713 -1.8972 
0.060645 0.484282 -1.75733 
1.12347 1.69997 -1.76003 
0.951657 0.302615 1.57087 
-0.9797 -1.20686 -1.68283 
-1.60992 0.509741 -0.9089 
1.34538 1.72897 0.852959 
0.885613 1.88552 -0.073383 
-0.609336 -1.8938 -1.3804 
-1.69689 -0.120048 -0.498567 
0.999764 1.7728 1.60723 
-1.774 0.865302 1.1796 
1.02304 -1.72476 -2.05996 
1.61458 -1.36011 0.633048 
-0.230618 1.62929 0.574002 
-0.095308 1.95712 0.284667 
-1.44783 0.228774 -1.75016 
0.525454 1.1202 -1.80418 
-1.26934 1.70527 1.03982 
-0.273067 -0.689427 -1.84232 
0.116439 -1.87411 1.32395 
1.10782 -1.77905 0.033764 
-0.68312 1.84412 0.806383 
-1.57663 1.81599 0.819294 
0.488191 1.77717 -0.455305 
1.21005 2.012 -0.131978 
1.69745 0.228322 -2.0007 
0.104026 1.79456 -0.094258 
-0.341975 -1.74337 -0.205141 
1.10826 1.90686 -1.58487 
-1.78749 1.79701 0.751961 
-0.238579 1.66689 -1.5482 
0.574593 1.84223 1.53672 
0.165293 -1.73763 -0.138066 
1.44303 -0.822323 1.63064 
0.480814 1.9044 -0.828244 
-1.75382 -0.401018 1.21626 
1.439 -0.583309 -0.197395 
0.021328 1.91487 -1.16127 
-1.31239 1.11561 -1.80797 
1.09783 -1.77802 -1.38419 
1.63227 1.68319 1.15576 
-0.086374 -1.0436 1.7715 
1.90628 -1.61682 0.45088 
-0.317429 1.93711 -0.48616 
-0.732475 -0.799108 1.96395 
1.45395 -0.767011 -1.6254 
1.26295 1.55396 -0.312583 
-1.29149 1.79033 -0.316402 
-1.93781 -1.45798 -0.011435 
0.126659 -1.79034 -1.88682 
-0.511236 -1.78524 -1.31949 
-0.756228 1.75145 -1.51136 
2.07878 -1.13098 0.945969 
0.296714 1.24663 1.79862 
0.927873 -1.62063 -0.805377 
-1.21075 -1.72429 -0.167426 
1.85835 0.636327 -0.822769 
-1.68727 0.325356 -0.023815 
-1.51021 0.889745 1.81444 
-0.792915 -0.65297 1.67014 
-0.02036 -1.72669 -1.24589 
0.184521 1.69785 0.796142 
1.65097 -0.817084 -1.33036 
1.39807 -0.921547 -1.68934 
0.106102 -0.026627 1.85057 
0.590144 1.26307 -1.83525 
0.245208 -1.72208 1.70296 
1.8237 -1.80015 -0.269017 
1.60168 0.224783 1.58538 
0.026186 1.7491 -1.7281 
1.9689 -1.68215 1.65179 
0.670313 1.93932 -1.06096 
-0.74496 -1.60948 0.321392 
0.737068 0.284178 -1.68424 
1.75131 1.60177 -0.766101 
-1.47286 1.72228 0.286397 
1.59674 1.95193 -1.2824 
-1.88329 -0.973676 0.984601 
-0.313955 0.491653 -1.66798 
-0.949695 1.64445 -1.77002 
-0.965792 -0.390171 -1.80324 
1.15938 -1.2856 1.73109 
0.365936 1.71991 -0.191523 
-0.55463 -0.899243 1.83323 
-1.91922 -0.424251 -1.36506 
-1.48761 -1.64943 0.145881 
0.728812 1.68275 -1.69092 
-0.202943 1.18428 -1.86872 
1.07952 1.66061 1.73594 
-1.5918 -1.70551 1.68419 
-1.15687 2.05607 0.792303 
1.79062 -0.081456 -0.058455 
-1.95055 -1.60919 -0.256003 
-1.41648 -1.87645 0.945968 
-1.64942 -1.71673 0.34119 
1.64228 -1.10869 -1.72384 
1.8147 1.06341 0.324992 
-2.02742 -0.686267 -0.373805 
1.17039 -1.77426 -0.565542 
0.213526 1.59179 -1.75488 
1.9109 -0.572965 0.323821 
1.66091 1.36802 1.73997 
-0.169549 -1.88376 1.05355 
1.11426 -1.75263 -1.40683 
-1.66434 -0.357946 0.665878 
-1.48328 1.20057 -2.01182 
-1.58994 1.78417 -1.01009 
1.19747 1.72656 -0.593826 
0.472903 -1.92871 1.06724 
-0.682549 1.79933 1.69535 
-1.856 0.385262 0.228619 
-1.76167 -0.253541 -0.761704 
-2.00921 0.270966 0.498829 
0.350172 -1.42263 -1.62312 
-0.18494 1.77487 -0.731776 
-0.713507 -1.52743 -1.97685 
-0.618676 -1.78532 1.6073 
-0.077213 -1.70974 0.603356 
0.595569 -1.98196 1.04564 
-1.61403 0.310406 -0.220412 
-0.94701 -1.78942 -0.567704 
-1.10319 1.71324 -1.10635 
1.7542 -0.135211 -1.27504 
1.1297 -1.69224 -1.58199 
-1.75902 -0.130513 -1.64359 
-1.55025 -1.8929 1.56693 
-1.66178 -1.4721 -1.83226 
0.466777 2.02151 1.82334 
-1.45156 1.89165 -0.020284 
-1.8412 -1.19078 -0.891663 
-0.448447 -1.39834 -2.031 
-1.89062 -1.59524 -1.20298 
1.77894 0.273594 0.566352 
-1.56583 1.04275 -1.24555 
-1.46081 -1.67349 -1.1138 
0.595207 -1.66148 0.88993 
-0.2462 0.585172 -1.83013 
0.939815 -2.00248 1.50123 
-0.796482 0.544839 1.77166 
1.75455 0.004429 -1.21721 
0.880928 1.66753 -0.756172 
-1.39393 0.296854 0.366543 
1.56452 -0.360161 -1.93618 
-1.82484 0.44831 -0.413407 
-1.53015 1.93852 -1.13937 
-1.81526 -1.54043 -1.57299 
-1.95206 1.42252 -0.619417 
-1.90045 1.31841 0.069983 
-0.394664 1.8754 -1.26534 
0.759945 -0.979385 -1.41637 
-2.09733 0.212169 -0.923091 
-1.22376 -1.43192 -1.85273 
-1.80828 -1.20852 -1.32319 
-0.34439 -1.84558 1.45625 
-1.89148 1.12584 1.7581 
1.67563 -1.89066 1.09183 
-1.01293 -0.880125 1.7707 
1.03329 -0.52267 1.88013 
-0.220644 -2.06049 -1.40212 
0.828025 -1.32046 1.75535 
-1.81181 1.94723 0.746947 
-1.6865 -1.79866 -1.24912 
-1.72178 1.77464 1.60394 
1.80573 1.31857 -1.30256 
-0.136028 -0.444024 -1.85732 
1.61328 -0.783253 -2.00045 
-1.85902 -0.047572 1.42756 
-0.32792 1.83223 1.47003 
1.8629 0.996532 1.50498 
1.25314 0.732099 -1.88112 
-0.0463 -1.75402 -1.83641 
-1.80561 1.85865 -0.68491 
0.734541 -0.361598 -1.9299 
1.88937 0.721282 0.534183 
0.936972 1.63011 1.61237 
-1.72212 -0.116489 -1.61642 
0.711585 -1.66771 0.144517 
-0.084834 0.918116 1.76932 
0.653941 -1.91063 -0.969448 
-0.391291 0.079603 1.71844 
0.428975 -1.72829 0.003817 
-1.42752 1.858 -0.222768 
1.13306 -0.308652 1.86934 
-1.83943 -0.96872 -1.76173 
-0.167294 0.646219 1.50043 
1.06631 -1.96026 -0.210691 
1.7442 0.920061 -0.818659 
1.02524 1.82521 -0.122253 
-1.92716 0.927931 0.769227 
0.247038 -0.562803 -1.70196 
-1.3139 1.69905 1.82788 
-0.127575 0.026399 -1.82179 
-0.319063 1.81421 0.842237 
-1.30548 1.76245 1.14834 
-1.84162 -0.376626 -0.696655 
1.41359 -0.533948 -1.94304 
1.21143 -1.79006 -0.025751 
1.65229 0.621114 -1.03472 
0.192664 -0.839307 1.70146 
0.381508 -1.7695 1.45775 
-1.75243 -0.671836 0.29283 
1.63498 -1.37977 -1.77935 
-1.25126 1.12186 -1.74616 
-1.27862 -1.62916 -0.145056 
-1.90804 -1.04526 0.409857 
-0.523459 -0.487698 -1.90484 
1.80311 1.12083 0.239236 
0.670616 -1.79823 0.717579 
-1.9671 -1.26772 0.032926 
-1.97618 0.824721 -0.263238 
1.06498 -1.96836 -1.06594 
1.685 -1.08086 0.226563 
-1.90679 -0.129379 0.052242 
-1.21222 -1.82632 0.534746 
1.85767 1.05121 0.584355 
-1.51257 -1.59278 0.221098 
1.90509 -0.449282 0.706274 
0.903459 -0.67236 -1.64751 
-1.82479 -0.94413 -1.86591 
-0.051787 -1.68872 1.6726 
1.34485 -1.52664 1.81809 
1.82511 -1.86051 -0.314966 
0.807801 0.459258 1.76497 
1.19967 1.85722 -0.610576 
1.0959 1.75922 0.887553 
0.072259 1.45837 0.463999 
-1.74995 0.065488 -0.569851 
-1.47446 1.76438 -1.7943 
1.50317 1.6734 -0.818719 
-0.48442 0.271291 -1.99238 
1.91434 1.55789 -1.79336 
-0.959036 1.80711 0.898515 
0.429574 -1.74599 1.87072 
1.71859 -1.88564 0.058828 
0.559612 -1.96457 -0.059063 
1.92636 -0.652491 1.59811 
-1.47407 -0.107585 -1.2509 
-1.66136 -1.75129 0.237903 
0.447969 1.82054 1.50872 
0.697493 0.283582 -1.82752 
-1.86706 -0.727215 -0.406566 
0.511276 -1.77061 -0.4324 
1.32857 1.92353 -0.310857 
-1.73474 0.951961 -0.4339 
1.8492 -1.93256 0.814409 
0.120316 1.97815 -1.98742 
1.98059 0.857838 -0.025726 
0.055674 -1.55874 -0.8951 
1.93284 0.498019 0.134007 
1.94877 1.55945 -1.03883 
-1.64937 1.40643 -0.697374 
-2.01065 0.937618 0.386191 
-1.49293 1.44598 1.78499 
-0.52323 -1.80265 1.64416 
0.135318 -1.79587 0.316665 
-1.84365 -1.46737 -0.110334 
1.00708 -1.7172 -1.31387 
0.287487 -0.192366 1.80132 
0.638571 1.6659 0.439905 
0.803748 1.80917 -0.460345 
0.304994 -0.256179 1.78667 
-0.334895 -0.605367 -1.57233 
-2.14527 1.25666 0.69056 
0.366738 -0.260284 1.92991 
0.957623 -0.261052 1.87132 
1.05085 1.79522 1.52585 
-1.85098 0.813928 0.848145 
-1.89441 0.920956 1.61638 
0.744557 1.78581 1.58836 
-1.223 1.60268 -0.148682 
-1.14195 1.70603 1.5868 
-1.7444 -0.984173 1.26862 
0.982569 -0.135685 1.78598 
-0.004793 -1.67362 1.78013 
0.264908 1.60846 -1.93588 
1.7489 -0.094527 0.493017 
1.76659 -0.822498 0.929927 
-1.45986 -0.817291 1.913 
0.607361 1.85326 -0.046464 
0.842435 1.90338 0.913192 
-0.882062 -0.473976 -1.70905 
0.178222 1.80935 1.53872 
1.89485 1.58177 1.25874 
-1.81817 0.155455 -0.773158 
-2.04261 -0.400809 1.02164 
-0.874824 -1.87163 -1.65698 
-0.130593 -1.88066 1.12679 
-1.03569 0.373121 -1.75728 
0.311957 1.76604 1.75944 
1.83744 1.91396 0.457206 
-1.6755 1.49788 0.042787 
0.087778 -1.73766 0.010166 
1.73531 -1.50483 -0.855554 
-1.82177 1.53405 0.904688 
-1.77654 -0.882731 -0.802916 
-1.51857 -1.08997 -1.99597 
-0.420571 -1.78735 1.5098 
1.31644 -1.77836 -0.854124 
0.688011 1.57249 1.9185 
-0.982867 0.171768 1.68169 
0.918089 0.182542 1.90535 
-1.72952 -0.971854 -1.30607 
-1.40537 1.6341 -1.14042 
1.07796 1.78866 -1.16296 
1.76459 -0.300839 1.51955 
0.889389 -0.100605 -1.76246 
1.68959 -1.47191 0.102325 
-0.358748 0.554178 1.69786 
1.73942 1.56993 -0.076326 
-0.729333 0.245297 1.89113 
-0.283518 -0.941465 -1.72208 
1.46791 -1.35474 1.16524 
-0.564629 -0.720948 1.63448 
-1.73434 0.209693 -1.46631 
0.714364 1.50614 -1.92811 
-0.13584 -1.65781 0.373817 
0.761998 0.769962 1.85923 
-1.49238 1.84052 0.39192 
-1.33035 -0.901677 -1.64783 
-1.24004 -1.6833 -0.868742 
-1.4247 -1.42674 -1.77282 
-1.81568 1.6145 -0.409528 
-1.68615 -0.383524 1.8093 
1.09106 1.25669 2.0437 
1.82696 0.65086 0.303218 
-1.71443 1.40897 1.34612 
1.88277 -1.03677 1.28635 
0.057129 -0.272548 1.90081 
-0.452911 1.64938 1.84616 
0.48951 0.563053 1.67702 
-1.90537 -1.56209 -0.461902 
0.788263 1.63697 0.012804 
1.701 1.89805 -1.5402 
-1.77407 -1.04926 -1.78029 
1.98356 0.140225 0.161026 
-0.978011 -0.32861 -1.88061 
1.87773 0.306602 1.88474 
0.956054 -1.88558 -1.26753 
-1.79185 -1.51173 -0.05127 
-0.339736 1.48723 -1.48334 
-0.613559 2.1032 0.390472 
-1.50001 -1.71378 -1.35777 
1.91898 -1.10247 0.22949 
0.446961 0.145809 -1.88938 
-1.6512 -1.84127 -0.232383 
1.94904 0.045955 0.047323 
1.93408 1.39379 0.963825 
1.22302 1.92768 -0.987531 
-1.44881 -0.564289 -1.65617 
-1.43739 -1.89563 -1.45963 
-0.568591 -0.951473 1.79739 
-1.68411 1.80954 1.69188 
-1.64588 -0.690315 1.49558 
-1.71111 -0.308382 -0.310366 
-1.83859 -0.165239 1.35842 
1.00809 -1.71335 -1.76298 
-1.55669 1.60783 0.161772 
-0.4907 1.55632 0.733993 
0.491618 1.59141 1.88589 
0.303475 -0.83401 -1.75887 
1.88468 -0.448616 -1.58618 
-2.1023 -0.535135 0.952802 
-0.654134 -0.059386 -1.86858 
1.47942 -1.80308 -0.703531 
1.39476 -1.81178 0.63968 
-1.66377 1.86432 0.254078 
1.80902 1.72088 1.22043 
-1.28798 1.79532 0.345658 
-1.8033 0.704612 1.71192 
1.80241 1.70051 -1.6454 
-1.80821 -0.653844 -0.540352 
1.38002 2.11064 -0.315235 
1.73281 1.05517 -1.43482 
-1.34931 1.84899 1.06137 
1.94605 -0.250749 0.644429 
1.65227 0.034378 -1.84358 
1.20418 -0.770733 1.8252 
-1.16124 0.658013 1.82344 
-1.68146 -1.15687 1.74605 
-0.805784 -1.72944 -0.321264 
1.721 -1.686 1.22924 
0.557994 1.75079 -0.534357 
0.864604 0.704362 1.93579 
1.20366 1.49563 -1.66909 
-1.71736 0.365421 -0.81011 
1.75917 1.63275 0.056761 
-0.526255 -2.10872 1.1494 
1.30049 -1.56595 -0.632356 
-2.13789 1.09403 -1.18215 
1.88971 -0.301231 1.36665 
-1.72027 -1.63265 -1.84436 
0.227697 1.45536 -0.089223 
-1.77518 -1.76242 -1.23338 
1.55147 1.94011 1.09146 
-1.85673 -1.54923 1.81069 
1.67006 0.241146 1.71942 
-0.391379 1.41984 0.201211 
0.052948 0.12701 1.95121 
-1.71098 -0.873755 1.56198 
-1.88672 -0.490027 0.089659 
1.17837 -0.834769 -1.81508 
1.25395 1.92048 1.40235 
0.308351 1.76246 -0.924979 
-1.03283 -1.18202 1.80406 
0.054429 -1.85885 1.05558 
1.08116 0.639384 -1.58776 
-1.68928 0.257656 -1.4428 
1.48713 1.86018 -1.27246 
-1.89517 -0.808868 1.21037 
-1.16774 1.73991 -0.285965 
-1.3273 1.6393 1.84546 
1.67818 1.72036 1.57462 
-1.62189 -1.88354 1.28492 
1.77258 0.241082 1.26973 
-1.57167 -2.02059 -1.63281 
-1.88673 -1.21546 -0.126282 
-0.158518 -1.22075 -1.77393 
-1.68 -0.466487 -1.76037 
1.51314 -1.79044 -0.245264 
-0.688474 -0.045685 -1.88312 
-1.94798 -1.2488 1.91003 
1.36431 -1.11891 -1.76483 
0.084273 1.92516 0.262371 
-1.79284 -0.993283 -1.67709 
1.15368 1.9038 1.05255 
-1.69335 -0.365461 -0.164624 
1.16174 -1.81288 0.323307 
-0.230403 -1.65376 1.34732 
-1.75123 -1.79885 -0.152534 
1.02904 -0.106355 -1.82453 
1.72679 -0.635389 0.875067 
1.82424 -1.07708 1.24695 
-1.75734 -1.24865 -1.4902 
-0.445039 1.82977 1.82842 
-0.302432 -1.74967 -1.07491 
-1.85015 0.542865 -1.61374 
1.81865 1.79251 1.67068 
-0.903077 1.17007 -1.69869 
-1.2831 0.633773 2.04555 
0.383193 -1.58087 2.12758 
-1.91133 1.07886 -1.45288 
1.7621 0.776485 -1.29391 
0.29678 -1.72904 -1.04524 
-1.22335 1.29195 -1.77069 
-1.36403 -1.83083 1.67368 
1.87353 -1.13704 0.981776 
0.849567 -1.94968 -0.222543 
0.950755 1.56574 1.72382 
1.67915 2.02034 0.851766 
-0.915826 1.77618 -1.8729 
-1.82469 -1.30317 -1.91924 
-1.93076 0.575528 0.888727 
-0.582869 1.65314 -0.641613 
0.412716 -1.93459 -0.192691 
-1.17621 -1.84768 1.08358 
1.59529 0.057073 0.412295 
0.159995 -0.70533 -1.87264 
-0.262961 -1.79848 0.032988 
-1.79615 -0.341518 0.62841 
-1.84049 -0.067624 -0.526799 
-1.89972 0.241761 -1.26077 
1.74213 1.16333 -1.01146 
-1.52797 -0.661096 0.550971 
0.858663 0.898332 1.94959 
1.80834 -0.365846 0.489246 
-1.80508 -0.176843 0.421115 
-1.19221 -1.64016 -0.529462 
-0.929784 1.83964 -1.02702 
0.178665 0.433302 -1.54111 
-1.69494 -0.791325 0.399226 
1.8425 -0.182066 -0.32132 
0.832431 0.628645 1.5886 
-1.85714 -1.04886 1.65753 
-1.76304 1.06801 -1.37332 
-1.61588 -1.81214 0.704666 
1.29865 -1.84353 0.552477 
-2.01008 -0.50946 0.747488 
1.38924 2.11479 -0.900638 
-0.139223 1.80189 -1.79861 
-1.96951 -1.29828 0.286187 
0.419103 0.670711 1.69966 
0.140507 0.854773 -1.67599 
-1.04635 1.77612 0.527035 
0.158009 -1.00742 -1.71548 
0.157601 -0.450945 -1.74176 
1.83808 -1.78463 1.69642 
1.89932 -0.731109 0.539378 
-2.02375 -0.861424 -1.52595 
-1.54234 -1.00601 1.92294 
